1581
44.997700 -2.835540 33.033901
25.716000 4.279030 7.833410
45.630901 -3.857500 32.919800
46.255402 -4.782220 32.598999
25.074499 4.024250 6.786280
46.845200 -5.538900 32.042099
45.455799 -5.030450 25.226200
24.437799 3.752750 5.740210
43.620399 -18.746500 29.947800
38.629398 -24.778601 23.641500
21.952200 3.005640 3.710180
15.311300 -29.370300 -15.087000
15.363800 -30.022900 -14.052100
15.500000 -30.594500 -12.969200
15.345900 -28.650801 -16.066500
17.863600 -13.556600 -24.718300
17.940599 -14.713200 -25.237101
18.051600 -15.883200 -25.718901
18.196600 -17.063801 -26.163000
18.376699 -18.252701 -26.566700
18.834801 -8.282790 -22.465300
18.750200 -9.344870 -23.160299
18.695601 -10.430300 -23.821501
18.676001 -11.538700 -24.444700
18.593300 -19.446800 -26.925800
18.847401 -20.644100 -27.236799
19.138100 -21.842300 -27.497999
19.465200 -23.039200 -27.706800
19.828800 -24.231701 -27.859600
20.229300 -25.415600 -27.951000
20.667200 -26.585100 -27.975700
21.145000 -27.729099 -27.930599
21.135700 -28.699699 -22.690300
20.177700 -28.435101 -21.920799
22.089701 -28.969700 -23.460699
23.010799 -29.222099 -24.273399
19.234501 -28.171301 -21.138100
18.312401 -27.898300 -20.344200
17.413000 -27.615000 -19.541901
16.311600 -28.134899 -17.849001
26.022200 4.827920 -4.992050
25.671200 4.532250 -6.076940
25.320601 4.210730 -7.191450
26.337999 5.063800 -4.071160
24.974501 3.867680 -8.301530
24.629299 3.495200 -9.401360
27.208300 5.190520 -3.630190
27.345301 5.447740 -2.432850
24.282499 3.083400 -10.492500
23.934799 2.626470 -11.575500
27.597401 5.721500 -1.189610
23.588301 2.123310 -12.648500
23.245800 1.574490 -13.708400
22.910400 0.979406 -14.751800
22.586201 0.335420 -15.774500
22.278099 -0.362238 -16.771400
21.991199 -1.117470 -17.737200
21.727400 -1.929130 -18.669300
21.486601 -2.791770 -19.566900
21.268101 -3.698920 -20.430799
21.072100 -4.644780 -21.261200
19.909500 -6.424620 -21.912500
52.067902 -6.263490 30.730900
52.878399 -6.202090 29.834400
51.750999 -5.745760 32.391899
53.708801 -5.971220 28.893700
51.138901 -5.091170 32.929001
50.564999 -4.208040 33.261700
54.612598 -5.718860 27.949301
55.541199 -5.665670 27.011600
61.836899 -8.779770 26.990999
60.759499 -8.150710 26.795700
59.662300 -7.558130 26.597700
58.549900 -6.993810 26.403200
57.441799 -6.428590 26.220100
62.894699 -9.446390 27.177500
63.931499 -10.151900 27.348499
65.740196 -14.499200 33.897400
65.852303 -13.677300 32.950600
65.864899 -12.933700 31.939800
65.774002 -12.282500 30.875401
65.533897 -15.382800 34.774200
65.241501 -16.312201 35.577301
64.869598 -17.274200 36.304501
65.581802 -11.731300 29.770300
65.297897 -11.276300 28.639400
64.423401 -18.257601 36.956001
63.909698 -19.252100 37.532398
63.332199 -20.247601 38.035500
50.023899 -3.193820 33.356499
62.694500 -21.233999 38.466400
49.510700 -2.134690 33.227901
49.018200 -1.094440 32.899899
50.585300 0.558528 29.863300
50.000801 0.644361 30.851101
49.306000 0.413280 31.715900
51.030899 0.180207 28.843800
51.309101 -0.463907 27.895399
51.388802 -1.354960 27.137699
54.910000 -2.202640 25.115101
62.285599 -23.363800 38.446400
54.641201 -1.637730 24.378599
52.318199 5.506200 18.530899
52.573700 3.569670 19.292801
52.268200 0.571749 20.203600
52.606098 1.531070 19.688101
52.147202 -0.376485 20.736000
48.260399 8.888370 15.718000
45.732601 9.201890 11.021900
47.069401 9.256420 13.969400
42.100498 8.223510 8.442080
40.716599 7.438590 6.666360
36.573700 6.457720 4.422530
36.325298 5.979950 3.269190
62.242401 -37.666801 33.273102
62.962399 -34.638599 34.199299
50.789902 -22.319599 9.316530
51.484001 -21.746799 8.605990
51.501999 -21.760401 7.368840
51.781101 -21.758499 6.134680
52.240101 -21.809000 5.066980
52.887600 -21.895201 4.266230
53.709202 -21.944599 3.841720
49.964699 -22.987801 11.230200
50.837200 -22.403799 10.418800
54.698799 -22.592300 4.654170
49.126801 -23.448000 12.216000
55.379101 -22.246000 5.100680
55.767700 -22.131599 5.959480
48.324699 -23.806101 13.231500
56.309898 -21.823601 6.962440
57.063599 -21.312099 7.961250
46.299500 -24.421900 14.104200
57.723999 -21.180799 9.250320
58.370300 -21.095100 10.389700
59.012100 -21.031700 11.495500
59.646400 -20.976000 12.595100
60.284302 -20.922501 13.684700
60.959702 -20.877100 14.736500
61.725601 -20.850700 15.700800
62.628601 -20.837299 16.515800
65.458199 -25.936100 17.927099
64.193199 -21.832701 17.453899
64.806099 -22.852301 17.660500
62.256001 -35.300201 20.415701
61.877300 -36.261902 20.988001
62.686001 -34.291698 19.908899
61.603199 -37.169899 21.641001
63.129700 -33.245201 19.463100
61.461700 -38.019699 22.400600
61.422501 -38.797699 23.279499
63.568001 -32.170399 19.077600
63.997601 -31.084900 18.752800
64.432098 -30.017099 18.488800
60.362499 -39.815102 24.814400
60.379002 -40.345402 25.905701
60.396198 -40.706001 27.052099
60.396198 -40.888401 28.222601
59.363800 -40.923000 29.940001
59.339298 -40.663300 30.993099
45.524899 -24.597900 15.159800
60.246899 -40.358101 31.437901
37.561298 -26.634600 15.552900
38.767300 -26.281000 15.602100
36.342098 -26.986401 15.519600
39.953899 -25.937000 15.676900
41.123402 -25.608400 15.794700
35.112499 -27.325300 15.495200
42.303799 -25.295200 15.946900
43.519600 -25.001400 16.091700
61.261700 -39.241001 32.554699
10.884200 -23.356300 -12.825700
11.220600 -16.671600 -12.852800
11.052200 -21.224001 -13.297300
44.647499 -17.778099 30.470400
45.396999 -16.444500 30.529699
45.880402 -14.498900 29.536100
41.165798 -8.211640 21.288799
42.103500 -8.745680 21.466801
43.179798 -9.109860 21.662701
40.445900 -7.491090 21.104799
40.011501 -6.609840 20.879601
45.082401 -10.249900 24.154499
45.445999 -10.822000 25.230700
44.712399 -9.757080 23.036600
45.799099 -11.466700 26.257999
46.134701 -12.166100 27.240000
46.446999 -12.898800 28.191099
23.806000 3.465340 4.696060
47.421700 -5.987520 27.820200
47.011700 -5.535600 26.730000
47.839298 -6.244810 28.965500
48.264301 -6.273430 30.131399
48.068901 -5.578730 32.027699
48.766300 -6.058440 31.222200
46.617298 -4.926150 25.731501
43.067402 -4.570960 23.065399
44.090302 -4.438700 23.680799
45.144798 -4.321450 24.278200
42.096699 -4.727220 22.440800
41.227200 -4.910230 21.826000
39.097801 -24.379601 24.413099
40.103802 -24.007799 24.863701
40.886200 -23.393299 25.881800
41.581699 -22.804899 26.793200
42.291100 -22.191299 27.683599
43.091099 -21.495800 28.641100
43.680199 -20.050501 29.743500
43.314800 -20.785400 29.236601
35.654598 -26.943300 16.549999
36.216202 -26.588900 17.598000
36.800701 -26.263399 18.638201
37.406101 -25.955999 19.670099
38.023800 -25.647499 20.694901
38.639301 -25.319401 21.712601
39.230999 -24.958799 22.718100
20.118900 2.407880 2.758670
21.335400 2.641710 2.684230
23.179501 3.158940 3.655730
15.470100 -27.877899 -16.991199
21.670900 -28.821899 -27.809000
18.693800 -12.668400 -25.028099
16.537001 -27.332199 -18.720800
19.780100 -7.450600 -22.656401
20.899300 -5.624820 -22.058100
51.287201 -6.105910 31.553600
56.385502 -5.795870 26.057301
64.940804 -10.901800 27.497101
48.539101 -0.121799 32.390701
51.245399 -2.448680 26.695900
52.167000 -3.405710 26.937201
53.337002 -3.996160 27.045799
54.897800 -3.950400 25.833200
55.000999 -3.332200 24.890200
63.011398 -22.409800 38.114101
62.534401 -24.525999 38.032700
62.748600 -25.685900 37.584301
49.364498 8.632740 16.248501
50.437500 8.246040 16.688101
51.882900 7.176450 17.357401
51.321201 7.856280 16.898001
52.563999 6.271970 17.711399
52.933300 4.446530 18.618099
53.028400 2.471490 19.172501
52.701401 -0.962680 22.254700
52.340500 -1.285480 21.265301
53.490002 -1.633870 22.796801
43.299400 8.476630 8.904180
44.469700 8.751790 9.358200
45.621300 9.044880 9.822620
46.976299 9.391920 12.758700
46.871601 9.421570 11.535500
48.189400 9.237310 14.534800
37.759201 6.550320 4.858960
38.954300 6.689980 5.261630
40.153599 6.848460 5.598460
42.004799 7.789230 7.289390
28.833799 5.779570 -0.790063
30.062099 5.807470 -0.386946
31.293600 5.809310 0.029423
32.543499 5.780720 0.472694
33.761902 5.733610 0.999098
34.926998 5.671040 1.559380
36.090599 5.593640 2.078580
54.251099 -2.166080 23.404600
62.186699 -38.597198 32.577801
63.070400 -35.769798 33.662300
63.112202 -36.855301 33.082199
63.092602 -27.993900 36.598801
62.932598 -26.841999 37.104198
63.234901 -29.143200 36.076000
63.367401 -30.291599 35.545101
63.497700 -31.440300 35.012699
63.632801 -32.588402 34.478298
63.772800 -33.732601 33.931900
54.618599 -21.869900 3.848790
47.539501 -24.093100 14.260700
63.670700 -20.816099 17.142000
64.908997 -28.989599 18.290600
65.463203 -27.987600 18.165501
66.076401 -26.969500 18.111900
65.450104 -23.870199 17.806000
66.087303 -24.892401 17.946199
61.435501 -39.473999 24.267500
60.361301 -40.891701 29.376499
44.758598 -24.736500 16.218599
61.168999 -39.930698 31.676399
11.258200 -24.544701 -13.025800
11.720700 -25.707199 -13.167700
12.280800 -26.828199 -13.246200
12.943500 -27.890100 -13.260200
11.288700 -17.871099 -13.265100
11.402200 -19.077900 -13.643700
11.560800 -20.289700 -13.989900
12.608600 -8.981160 -10.074100
12.866800 -7.938890 -9.405250
12.385300 -10.052600 -10.713800
13.160200 -6.932110 -8.708070
12.198500 -11.149500 -11.324100
12.051400 -12.269900 -11.903300
13.488900 -5.971690 -7.989900
11.946700 -13.412000 -12.449400
13.849000 -5.082770 -7.279580
11.886400 -14.573400 -12.961000
14.203800 -4.356900 -6.675900
15.005300 -3.729590 -6.698030
15.303300 -2.989240 -5.777230
15.730900 -2.221850 -4.858990
16.205299 -1.500710 -3.951570
16.708900 -0.824423 -3.037030
17.235500 -0.188567 -2.108500
17.782101 0.408810 -1.164670
11.871900 -15.751600 -13.437500
18.345900 0.967927 -0.205790
11.299000 -22.434999 -13.582200
18.924700 1.488020 0.767842
19.516399 1.968240 1.756090
13.707500 -28.877100 -13.212700
14.564500 -29.779200 -13.111700
46.162102 -15.366400 30.381399
46.731998 -13.649700 29.132099
44.332199 -9.337490 21.888901
40.489700 -5.198650 21.242599
39.904900 -5.635050 20.594601
33.017899 5.660300 17.121000
32.303600 5.613610 16.095301
31.606600 5.531610 15.065500
33.757702 5.646970 18.147699
30.921499 5.429040 14.031200
30.244900 5.305550 12.994100
34.538300 5.548920 19.184900
35.038502 5.185130 21.316299
35.386799 5.363820 20.169701
29.575300 5.154880 11.955900
35.830002 4.907290 22.205601
36.577900 4.626950 23.155199
28.912001 4.976780 10.916900
37.314701 4.403100 24.140900
38.042500 4.260540 25.151300
28.253901 4.777240 9.876510
38.757999 4.175370 26.174101
39.458698 4.088900 27.192400
40.141201 3.934890 28.184700
40.810001 3.655620 29.128599
41.489101 3.212180 29.999901
42.221901 2.588860 30.780800
42.929699 1.791720 31.496799
27.600901 4.560990 8.834280
43.518501 0.900570 32.110100
43.956299 0.079701 32.518700
26.952900 4.328510 7.790750
44.963299 -0.539895 32.712399
45.661800 -1.748760 33.007801
46.269100 -2.852600 33.097000
26.310200 4.079980 6.746440
46.865501 -3.892870 32.981201
47.464901 -4.825440 32.635300
25.672501 3.818770 5.701360
46.228699 -4.204590 24.843399
25.039499 3.547880 4.655790
44.604099 -19.241199 30.485201
39.754101 -24.551800 23.716400
22.558800 2.827580 2.621790
14.499100 -29.131300 -14.159200
14.524800 -28.408400 -15.154100
14.641700 -27.625000 -16.092899
18.747801 -13.815900 -25.573601
18.836300 -14.977900 -26.083000
18.958799 -16.151899 -26.556200
19.116199 -17.335800 -26.991199
19.310101 -18.527100 -27.383499
19.676100 -8.501650 -23.369400
19.600599 -9.576380 -24.049801
19.558100 -10.674000 -24.694700
19.552099 -11.793100 -25.302000
19.541500 -19.723499 -27.728500
19.810101 -20.923401 -28.023500
20.114700 -22.124500 -28.266600
20.453699 -23.324699 -28.454901
20.825800 -24.520399 -28.583700
21.229700 -25.705900 -28.646400
21.664600 -26.870199 -28.637899
22.134399 -27.987000 -28.555500
21.466499 -27.872700 -23.507900
20.505100 -27.597401 -22.759701
19.556299 -27.323299 -21.989201
22.418100 -28.140600 -24.243200
23.315300 -28.358500 -24.973000
18.628700 -27.046700 -21.196199
24.011700 -28.416100 -25.592501
24.591200 -28.807699 -26.072001
25.380501 -29.404699 -27.540899
25.111300 -29.150000 -26.748800
17.723101 -26.765100 -20.384399
16.839100 -26.481400 -19.552999
15.682400 -27.059299 -17.866501
27.063900 4.948660 -4.738220
26.787500 4.691770 -5.835470
26.468300 4.411040 -6.963090
26.134800 4.108190 -8.095780
25.794600 3.776930 -9.221150
25.449600 3.407700 -10.335800
28.570999 5.523940 -2.019990
28.343100 5.279680 -3.231270
25.101200 2.993600 -11.438800
24.751900 2.532650 -12.529700
24.403900 2.025580 -13.607100
24.060400 1.472510 -14.669200
23.725000 0.871399 -15.712700
23.402300 0.217799 -16.733299
23.098000 -0.493553 -17.725500
22.815701 -1.264590 -18.685200
22.556601 -2.091970 -19.610399
22.319901 -2.969440 -20.500700
22.105700 -3.890410 -21.356001
21.914000 -4.849320 -22.176399
20.750601 -6.635620 -22.821699
50.824501 -6.232840 30.543200
51.625000 -6.134840 29.659800
52.434101 -5.795290 28.761999
50.572498 -5.681960 32.270302
53.279701 -5.159970 27.790600
49.927200 -4.986600 32.824600
49.333698 -4.080410 33.160198
54.476200 -4.719360 26.867701
55.467899 -4.992530 25.923500
61.484100 -8.415770 25.835300
60.428101 -7.759370 25.642599
62.516102 -9.111170 26.022100
59.345001 -7.147170 25.448900
58.245701 -6.566820 25.259899
57.167702 -5.972320 25.083599
63.531799 -9.835720 26.197300
64.535301 -10.584700 26.354000
66.334396 -15.618100 33.811100
66.504303 -14.754400 32.911598
66.581398 -13.959500 31.946600
66.561401 -13.250100 30.923599
66.441399 -12.638500 29.852200
66.076897 -16.533600 34.640301
65.738602 -17.485600 35.397400
65.324997 -18.461800 36.082199
66.221199 -12.126900 28.745300
65.909103 -11.707000 27.618200
64.841797 -19.451401 36.695702
64.292900 -20.445200 37.238701
63.681702 -21.434099 37.711399
48.778198 -3.050380 33.264000
48.250599 -1.972280 33.152901
47.745499 -0.899481 32.845001
49.904598 0.751877 28.928400
49.412201 1.057610 29.938200
48.788799 1.060520 30.896099
48.061699 0.740206 31.719200
50.244999 0.182044 27.958900
50.409599 -0.617880 27.125099
50.371799 -1.606430 26.523500
54.776299 -2.726920 24.068600
63.288200 -23.584801 37.725399
53.153801 5.269050 17.896900
53.402901 3.347810 18.604300
52.501801 -0.557632 19.801399
52.895000 0.404868 19.342501
53.358200 1.367070 18.907400
52.321701 -1.478710 20.308100
49.291199 9.094420 15.095400
46.760601 9.334580 10.312100
48.101101 9.468950 13.318600
43.200500 8.093130 7.768450
42.026600 7.253430 6.234340
41.177799 6.943070 5.753800
37.504902 5.998990 3.746750
37.268200 5.533380 2.586320
63.063702 -37.860199 32.440701
63.892200 -34.870701 33.366199
52.385300 -20.906700 6.778900
52.321301 -20.973000 7.989560
51.651001 -21.757500 9.750500
52.613499 -20.891001 5.594540
53.022701 -20.930099 4.545720
53.642200 -20.987600 3.754250
54.468498 -20.980400 3.336290
51.124001 -22.453501 11.658400
50.329899 -22.983700 12.528300
55.431900 -21.696199 4.275370
49.543701 -23.421400 13.473800
56.501499 -21.265200 5.975280
56.027599 -21.498699 5.039390
48.767601 -23.780399 14.458200
56.925900 -21.025999 6.828040
57.554600 -20.299400 7.142230
58.014801 -20.267401 8.291410
46.765499 -24.325100 15.299600
58.601101 -20.196199 9.444330
59.214401 -20.134300 10.565900
59.825298 -20.078300 11.678000
60.426701 -20.020700 12.787900
61.032001 -19.960400 13.884200
61.676800 -19.903500 14.936000
62.410301 -19.857000 15.893900
63.271801 -19.818600 16.704100
66.701202 -25.924299 18.131201
66.062500 -22.813499 17.912001
65.419701 -21.792700 17.779499
64.806900 -20.778799 17.604900
62.977200 -36.061199 20.790701
63.417599 -35.122700 20.269899
62.612801 -36.909100 21.356199
63.876900 -34.119099 19.798201
62.431702 -37.668400 22.011900
64.326302 -33.066700 19.382099
62.419498 -38.373001 22.819401
62.461601 -39.014099 23.771000
64.751404 -31.983299 19.026300
65.148003 -30.904900 18.733000
65.533501 -29.889700 18.509899
61.463699 -40.016701 25.343901
61.479698 -40.403702 26.485300
61.461899 -40.624599 27.663500
61.390099 -40.677700 28.845800
60.286701 -40.724998 30.453300
46.002102 -24.506001 16.348499
61.014999 -40.400501 30.887199
36.878399 -26.606501 16.568701
38.091702 -26.270100 16.598301
39.282600 -25.945499 16.643900
40.423500 -25.645100 16.719900
41.531101 -25.362200 16.918400
42.722000 -25.087799 17.147200
43.989498 -24.840799 17.286699
62.073700 -39.378300 31.780300
11.608500 -23.639299 -13.825000
11.903900 -16.943399 -13.878400
11.766500 -21.503799 -14.303100
45.478600 -18.617901 31.184000
45.851002 -17.397600 31.254801
46.471901 -16.242901 31.218500
46.990002 -14.416200 30.080299
41.692001 -8.382520 20.302401
42.777699 -8.750670 20.495899
40.737701 -7.833620 20.137501
43.934601 -8.976180 20.724300
39.996700 -7.084960 19.980301
39.552700 -6.157250 19.794701
45.908401 -9.881040 23.298401
46.289799 -10.368300 24.430000
46.657501 -10.928200 25.533501
45.522400 -9.461650 22.148001
46.998402 -11.550300 26.598101
47.313400 -12.209900 27.624599
47.604198 -12.884000 28.633400
24.411100 3.265190 3.611390
48.678398 -5.885020 28.137199
48.244999 -5.424540 27.104500
47.801399 -4.808530 26.173700
49.110901 -6.160480 29.236601
49.563599 -6.227930 30.346399
49.337898 -5.619040 32.134201
48.694000 -4.896780 32.711300
47.341000 -4.075000 25.361401
43.859600 -3.700000 22.742100
44.845200 -3.553670 23.402201
42.872398 -3.859170 22.086800
45.840401 -3.411990 24.047701
41.895401 -4.045550 21.459299
40.967800 -4.291640 20.868900
41.540401 -23.903400 24.889299
40.963902 -24.348499 23.823601
42.186699 -23.436899 25.901800
42.845200 -22.967501 26.877600
43.540501 -22.497499 27.851999
44.296200 -22.091400 28.816299
44.045399 -21.134199 29.448200
44.926899 -20.546600 30.394400
37.438400 -26.266500 17.609699
38.024700 -25.961300 18.638700
38.634201 -25.674400 19.658199
39.251999 -25.385500 20.680099
39.857700 -25.078501 21.711700
40.432400 -24.739901 22.754000
20.726299 2.241660 1.669620
21.944500 2.465170 1.596900
23.787800 2.964110 2.570920
14.847200 -26.794201 -16.976700
19.582899 -12.930700 -25.872101
25.390200 -29.441000 -28.404800
15.976700 -26.201401 -18.695801
20.627501 -7.674220 -23.552200
28.136000 5.044700 -4.407970
21.746300 -5.842250 -22.961100
50.052200 -6.069300 31.386101
56.187000 -5.279250 24.931200
65.521103 -11.365100 26.485701
47.266300 0.124402 32.353401
50.110298 -2.695780 26.225599
50.827202 -3.572350 26.627800
51.401199 -4.440400 27.165899
52.440300 -4.467890 27.314400
55.418701 -4.396760 24.827900
55.091301 -3.840940 23.620100
63.989899 -22.620899 37.351002
63.526001 -24.756500 37.299099
63.728001 -25.923201 36.838001
50.347401 8.798340 15.610100
51.291599 8.349370 16.035900
52.670898 6.880340 16.810699
52.050999 7.715760 16.426800
53.198502 5.924080 17.116800
53.656399 4.111840 17.839500
53.743198 2.283820 18.453400
52.924999 -2.215700 21.744600
52.443401 -2.299840 20.794701
53.833000 -2.729230 22.459700
44.366199 8.413040 8.209510
45.513302 8.759110 8.647960
46.648602 9.114570 9.105080
47.999699 9.586410 12.080900
47.889599 9.582280 10.834800
49.205898 9.427350 13.891000
38.685501 6.082200 4.199730
39.856998 6.225060 4.608180
40.980801 6.403540 4.953500
43.137798 7.584630 6.693670
29.789900 5.558980 -1.632590
31.013901 5.563330 -1.245120
32.266201 5.533330 -0.854352
33.655300 5.447040 -0.450189
34.769699 5.416080 0.331750
35.881901 5.321490 0.865734
37.044601 5.208530 1.369440
54.501801 -3.076530 23.133699
62.921200 -38.737202 31.746000
63.946701 -35.988400 32.778702
63.906601 -37.051899 32.156799
63.900299 -27.084101 36.347198
64.048698 -28.239901 35.833401
64.179298 -29.391600 35.304298
64.299202 -30.539400 34.766602
64.417198 -31.681000 34.221802
64.544296 -32.809399 33.658298
64.689598 -33.925499 33.040600
52.392700 -21.076900 9.125100
51.900700 -21.837999 10.885300
55.477001 -20.783100 3.356710
48.000301 -24.073799 15.467000
64.264198 -19.777500 17.343000
66.015602 -28.962500 18.389000
66.645401 -28.021999 18.371000
67.285599 -26.978100 18.401199
66.701599 -23.839100 18.050800
67.312599 -24.870100 18.236900
62.509800 -39.548000 24.828300
61.245602 -40.575901 29.983500
45.246498 -24.637699 17.408701
61.959099 -40.004501 30.757200
11.994700 -24.827801 -14.016400
12.470300 -25.987801 -14.148300
13.045000 -27.102699 -14.215500
13.722700 -28.155300 -14.217200
11.982200 -18.145300 -14.284400
12.106100 -19.354500 -14.656400
12.276000 -20.568399 -14.995000
13.481200 -8.192320 -10.452500
13.233500 -9.237970 -11.119500
13.761200 -7.179140 -9.756820
13.019200 -10.311300 -11.758200
14.072200 -6.207160 -9.033310
12.841300 -11.410100 -12.367300
12.703300 -12.533000 -12.944300
14.408000 -5.292370 -8.288550
12.607900 -13.677700 -13.486900
14.743400 -4.463490 -7.533050
12.557300 -14.841800 -13.994100
16.427099 -2.339100 -5.957500
16.034000 -3.070880 -6.855960
16.874399 -1.634600 -5.048400
17.358400 -0.967577 -4.130100
17.870501 -0.337550 -3.199330
18.406300 0.255658 -2.254380
18.963100 0.810763 -1.294720
12.553300 -16.022499 -14.464800
19.537399 1.326690 -0.320501
12.025400 -22.716299 -14.579800
20.126200 1.803440 0.667811
47.225601 -15.206000 31.032301
47.866901 -13.563200 29.653299
45.127201 -9.097850 20.984900
40.136902 -4.637450 20.261101
39.458000 -5.108290 19.541201
32.871899 5.550850 14.972600
33.580002 5.622320 15.992300
34.308899 5.648220 17.004700
32.179001 5.451800 13.946400
35.065701 5.606220 18.009800
31.497101 5.330990 12.916200
30.823400 5.184600 11.884400
35.855400 5.480900 18.998600
36.234402 5.112370 21.098801
30.156401 5.009450 10.852400
37.019798 4.832370 22.046900
37.778000 4.578970 23.023500
29.495300 4.808910 9.819790
38.521801 4.395790 24.027100
39.252499 4.288100 25.052799
28.839701 4.589660 8.785320
39.968300 4.219060 26.091200
40.666901 4.129810 27.127701
41.346901 3.960700 28.140600
42.015598 3.662860 29.097200
42.713699 3.210090 29.949100
43.660000 2.561380 30.679800
44.251999 1.632700 31.556200
28.189699 4.355940 7.748420
44.714500 0.672021 32.200298
27.545900 4.109390 6.709130
45.966000 0.368922 32.294498
46.432999 -0.723938 32.781101
46.975498 -1.838500 33.076801
47.528500 -2.932070 33.174301
26.907700 3.853210 5.667340
48.098499 -3.972500 33.059601
26.274500 3.592020 4.622850
46.861599 -3.264360 24.657801
25.645800 3.326470 3.576700
45.390301 -19.653999 31.052500
23.169901 2.637460 1.537280
13.832100 -27.367901 -15.165700
14.032600 -26.530100 -16.056999
19.649200 -14.083900 -26.406700
19.750401 -15.250100 -26.906300
19.886499 -16.427500 -27.369499
20.058500 -17.614000 -27.793100
20.267700 -18.807501 -28.172100
20.532200 -8.737910 -24.249500
20.467899 -9.824610 -24.912901
20.438200 -10.932400 -25.541300
20.445101 -12.059200 -26.134100
20.514200 -20.006399 -28.502501
20.797199 -21.209200 -28.780899
21.115101 -22.414400 -29.004801
21.464500 -23.619400 -29.170300
21.841700 -24.819599 -29.271500
22.242001 -26.005301 -29.300900
22.660801 -27.153500 -29.250999
23.089300 -28.205400 -29.115601
23.484600 -29.002001 -28.907700
24.272800 -29.228100 -29.058701
21.848600 -27.027700 -24.253401
20.893801 -26.742701 -23.530100
19.945299 -26.457001 -22.774099
19.014700 -26.171700 -21.986900
22.783600 -27.301001 -24.943800
23.654100 -27.546200 -25.586901
18.104500 -25.885401 -21.173901
24.445299 -27.831499 -26.181000
25.161301 -28.177401 -26.808599
25.731400 -28.500099 -27.551800
26.057501 -28.727800 -28.410500
25.210300 -29.173901 -29.195999
17.214600 -25.598700 -20.338699
16.346100 -25.313900 -19.479799
15.136100 -25.927000 -17.809099
27.897400 4.810150 -5.559870
27.611900 4.565190 -6.709540
27.298100 4.302200 -7.861250
26.967899 4.012470 -9.007890
26.627199 3.685960 -10.144600
26.279699 3.315190 -11.268900
29.285500 5.108130 -4.069500
29.531000 5.327880 -2.862390
25.928499 2.897400 -12.379700
25.576099 2.433000 -13.476300
25.225599 1.922370 -14.557700
24.880501 1.363830 -15.621500
24.545500 0.753378 -16.664200
24.225599 0.086014 -17.681400
23.925699 -0.642074 -18.668301
23.648399 -1.430590 -19.621599
23.394199 -2.274820 -20.539400
23.162701 -3.168030 -21.421200
22.953600 -4.103610 -22.266300
22.767599 -5.076470 -23.073400
21.604099 -6.866020 -23.709900
51.171398 -5.775020 28.620501
50.372299 -6.124250 29.466101
51.919399 -5.192520 27.856199
62.153301 -8.767050 24.867901
61.148701 -8.042990 24.678400
60.108501 -7.370070 24.485100
63.134399 -9.525200 25.049000
59.033199 -6.752780 24.291401
57.942902 -6.169630 24.101999
56.885300 -5.562000 23.922001
64.107300 -10.299700 25.215000
65.079803 -11.083800 25.357800
67.084602 -15.869500 32.820202
67.218399 -15.030100 31.903000
66.863297 -16.768499 33.671200
67.261299 -14.269700 30.925301
67.211098 -13.606400 29.894699
67.064400 -13.046100 28.818899
66.560402 -17.709000 34.453999
66.181602 -18.676800 35.168800
65.732201 -19.660700 35.816502
66.816704 -12.579100 27.710800
66.472397 -12.194700 26.589300
65.215202 -20.651300 36.396702
64.633499 -21.640600 36.908298
48.232201 1.542900 29.985001
48.770500 1.318820 28.986799
49.167198 0.823910 28.002899
47.568298 1.455110 30.912399
46.805801 1.048450 31.695900
49.407902 0.103186 27.115101
49.472099 -0.802220 26.401199
49.338902 -1.836230 25.929100
64.255997 -23.804701 36.951500
53.563801 5.025230 17.298000
53.923698 3.036590 18.009001
53.601398 0.264921 18.519899
53.120499 -0.702671 18.929600
52.722099 -1.637210 19.402700
54.000599 1.225680 18.113501
52.544899 -2.454870 19.948500
50.263100 9.217350 14.445700
47.775101 9.441330 9.595620
49.107101 9.641240 12.650400
44.278599 7.940000 7.113140
42.033298 6.643370 5.307770
38.452000 5.529060 3.092630
43.093498 6.961010 5.705130
38.253601 5.114880 1.886140
63.755299 -38.026100 31.492201
64.769096 -35.062801 32.401001
53.120201 -20.120701 7.459800
53.163200 -20.023399 6.230920
53.169399 -20.299400 8.656720
52.613602 -21.173201 10.190000
53.349701 -19.995800 5.043620
53.724300 -20.016600 3.992200
54.331299 -20.033199 3.197380
55.151001 -19.965200 2.761740
51.503201 -22.533800 12.872800
50.741600 -23.042500 13.756300
52.252701 -21.940901 12.052000
56.206902 -20.781601 4.113430
49.980000 -23.472601 14.690700
56.735100 -20.599300 5.050750
57.170799 -20.389900 6.067870
49.223000 -23.832500 15.661600
58.281898 -19.324800 7.410010
58.803101 -19.243999 8.548980
47.242500 -24.306101 16.494699
59.377701 -19.180201 9.679960
59.965000 -19.126499 10.803300
60.543598 -19.073400 11.925600
61.110100 -19.015301 13.044900
61.681400 -18.953199 14.145900
62.293701 -18.892799 15.197100
62.994400 -18.839300 16.152500
63.820499 -18.789801 16.967501
67.877403 -25.904600 18.497400
66.634102 -21.743999 18.109900
65.981201 -20.726000 17.991100
67.279198 -22.773300 18.247200
65.349503 -19.722500 17.846600
63.598400 -36.696899 21.301201
64.080902 -35.855999 20.793699
64.576500 -34.910301 20.302401
63.201199 -37.332500 21.756201
65.055496 -33.891399 19.851601
63.302299 -37.874100 22.407801
65.501503 -32.813900 19.454201
63.408798 -38.451900 23.307199
63.492100 -38.959000 24.342600
65.893402 -31.705500 19.111500
66.204300 -30.635300 18.823999
66.407600 -29.759300 18.622999
62.533600 -39.945900 25.960501
62.510201 -40.193401 27.139400
62.420200 -40.287601 28.336399
62.246300 -40.230301 29.528900
46.494999 -24.477100 17.538500
38.647301 -25.954800 17.626801
39.812801 -25.667999 17.638800
40.805599 -25.441500 17.624901
41.763100 -25.182301 18.247601
43.197498 -24.917101 18.376900
44.493599 -24.725100 18.482300
62.719700 -39.383301 31.090500
12.348300 -23.920799 -14.813000
12.596600 -17.216499 -14.898900
12.494400 -21.784100 -15.299300
15.686600 -3.827110 -7.724480
46.843899 -17.103701 32.028000
46.395500 -18.251600 31.956800
47.467201 -16.017700 31.960100
48.098701 -14.262200 30.711100
42.346001 -8.422420 19.331400
43.516602 -8.650980 19.554600
41.242298 -8.042090 19.151300
40.268501 -7.468500 19.009600
44.718700 -8.771530 19.814899
39.512100 -6.683140 18.881500
39.054298 -5.706680 18.712799
47.130199 -9.923630 23.597700
47.537102 -10.406800 24.761499
46.731499 -9.507680 22.434401
47.891602 -10.966900 25.909201
46.336399 -9.145100 21.269501
48.190899 -11.575500 27.009100
48.483501 -12.191900 28.068600
48.757900 -12.801700 29.128401
25.021299 3.051110 2.531460
36.663502 5.273860 19.963600
49.926998 -5.809980 28.407101
49.474400 -5.319420 27.426300
48.995899 -4.679180 26.560900
48.477501 -3.925460 25.827801
47.916500 -3.099630 25.219900
45.469898 -2.579230 23.301001
44.582100 -2.754600 22.548201
43.667000 -2.939930 21.797001
42.685501 -3.131780 21.066099
46.373600 -2.410830 24.027500
41.646702 -3.371810 20.428400
40.641499 -3.675750 19.869801
46.128201 -19.381300 31.752001
42.239799 -24.245399 23.871401
42.831402 -23.905899 24.935101
43.442299 -23.563801 25.977400
44.068298 -23.233101 27.009800
44.715599 -22.934200 28.042400
45.086399 -21.743999 29.785999
45.897301 -21.477301 30.781000
45.943901 -20.436701 31.351500
39.240501 -25.675301 18.628099
39.868500 -25.410299 19.626101
40.494598 -25.143999 20.657900
41.093399 -24.866301 21.719299
41.668301 -24.568001 22.793600
21.337700 2.068030 0.583039
22.558001 2.280120 0.512830
24.401199 2.757520 1.490410
14.318000 -25.655399 -16.893900
20.488600 -13.202300 -26.692200
26.059299 -28.793501 -29.244301
15.500900 -25.033001 -18.594000
21.489401 -7.917220 -24.423300
29.036301 4.894070 -5.256280
22.606701 -6.082810 -23.841999
55.926399 -4.835600 23.756599
66.044296 -11.889200 25.471201
49.001598 -2.910770 25.737200
49.634998 -3.754980 26.248899
50.198799 -4.545950 26.896999
55.534100 -4.557860 22.508200
54.476898 -3.751460 22.199301
64.931503 -22.834801 36.539200
64.481201 -24.983200 36.513599
64.671303 -26.155001 36.041500
51.218102 8.805930 14.949600
52.004200 8.182660 15.399100
52.599201 7.361190 15.821300
53.048801 6.388480 16.223600
53.412201 5.334900 16.580400
53.721802 4.234480 16.931400
54.024799 3.143880 17.294800
54.171700 2.158650 17.686800
53.451900 -3.261350 21.510000
52.783001 -2.944370 21.038300
52.621300 -2.989840 20.436300
45.414299 8.331590 7.519090
46.541599 8.746460 7.935610
47.661800 9.147800 8.383700
48.998901 9.731190 11.389800
48.884602 9.681830 10.125800
50.164398 9.522500 13.222700
39.625801 5.604640 3.579600
40.778500 5.753850 4.015720
41.904099 5.967430 4.406940
44.204399 7.332600 6.090580
30.736500 5.344090 -2.500470
31.953300 5.330130 -2.145580
33.189301 5.278770 -1.819840
34.389000 5.179100 -1.616750
34.784801 5.241550 -0.692127
35.712898 5.152280 -0.305649
36.828400 5.026560 0.139322
38.027699 4.887320 0.607877
63.470001 -38.876598 30.812599
64.726601 -36.184601 31.772400
64.581001 -37.224499 31.118799
64.830902 -27.319901 35.541500
64.965401 -28.478201 35.020599
65.080200 -29.629601 34.485802
65.181396 -30.770700 33.942501
65.278603 -31.888800 33.388000
65.399498 -32.956402 32.792801
65.655502 -33.999001 31.967501
53.177101 -20.558901 9.610300
52.964401 -21.270399 11.287200
56.423302 -19.940201 3.246960
55.918598 -19.788401 2.683510
48.473999 -24.125601 16.660601
57.833099 -19.447100 6.278290
64.772202 -18.733601 17.630899
67.036797 -29.085800 18.671600
67.883797 -28.121700 18.821600
68.388901 -26.915701 18.843201
67.891701 -23.810699 18.438499
68.449600 -24.852400 18.705099
63.532299 -39.352600 25.464300
45.756500 -24.589899 18.595400
62.963001 -39.608601 30.180099
12.748900 -25.107401 -14.993500
13.240600 -26.261900 -15.112600
12.686600 -18.420799 -15.297000
12.823100 -19.632299 -15.660400
13.006500 -20.848000 -15.989300
13.868200 -9.493960 -12.162200
14.107500 -8.445890 -11.495800
14.377300 -7.427810 -10.801800
14.676400 -6.445630 -10.079200
13.662100 -10.569300 -12.800400
15.002300 -5.509580 -9.327190
13.493200 -11.670800 -13.407900
13.364700 -12.796800 -13.981600
15.345400 -4.633880 -8.545560
13.279300 -13.944600 -14.519900
13.239500 -15.111500 -15.021200
16.697399 -3.208460 -7.923460
17.100401 -2.470300 -7.041470
17.538200 -1.772490 -6.138040
18.010300 -1.112870 -5.219180
18.511101 -0.489481 -4.286840
19.037300 0.098796 -3.341070
19.586300 0.650073 -2.381210
20.155199 1.162060 -1.406930
13.247400 -16.294600 -15.484600
20.740299 1.634240 -0.418563
12.767300 -22.997200 -15.565800
48.253700 -15.016200 31.762800
49.014702 -13.406300 30.232201
45.935001 -8.819270 20.101200
39.736198 -4.047750 19.247400
38.912601 -4.538480 18.388599
34.135899 5.555450 14.871400
33.436798 5.465050 13.854500
34.850700 5.609790 15.877600
35.585701 5.611000 16.870899
32.749901 5.347720 12.831400
36.344398 5.541250 17.850800
32.072498 5.203480 11.806400
31.402000 5.029730 10.781700
37.123299 5.389660 18.818501
37.459900 5.009430 20.920401
30.737600 4.827600 9.757780
38.233898 4.732420 21.889799
38.990799 4.492240 22.881599
30.078800 4.603350 8.732790
39.733200 4.318940 23.900000
40.460400 4.208300 24.943701
29.426100 4.364380 7.704910
41.171200 4.125600 26.003401
41.862499 4.020810 27.060900
42.528301 3.840620 28.088100
43.158501 3.548200 29.034800
43.700401 3.174120 29.775900
45.068199 2.182270 30.841000
44.662498 2.834890 29.937599
45.540298 1.350890 31.641399
28.780399 4.115800 6.673030
28.141600 3.861560 5.636600
27.509100 3.605910 4.595350
26.881300 3.350980 3.549900
47.321098 -2.237220 24.705500
26.257200 3.093730 2.502370
45.384800 -22.682100 29.079700
23.785801 2.438360 0.456583
13.522700 -25.382999 -15.953900
20.568300 -14.359500 -27.215799
20.684299 -15.529100 -27.704100
20.836300 -16.709299 -28.155300
21.024799 -17.898001 -28.565901
21.250000 -19.093599 -28.931000
21.404600 -8.992480 -25.102501
21.352301 -10.088900 -25.748100
21.334999 -11.204000 -26.360399
21.354700 -12.335700 -26.939600
21.511700 -20.295200 -29.246500
21.809000 -21.502199 -29.507799
22.139099 -22.713400 -29.710699
22.496700 -23.926201 -29.850800
22.874001 -25.133400 -29.920401
23.262400 -26.316601 -29.907101
23.649900 -27.435600 -29.792200
24.010300 -28.418600 -29.542299
24.949800 -28.576000 -29.815901
22.291800 -26.175600 -24.943501
21.342199 -25.877899 -24.242100
20.395700 -25.580400 -23.501400
19.464100 -25.284599 -22.723000
18.551399 -24.990400 -21.912901
23.226000 -26.471300 -25.605600
24.130899 -26.776699 -26.235001
17.657700 -24.697901 -21.077700
24.997400 -27.108801 -26.863600
25.789499 -27.454901 -27.549101
26.432301 -27.769800 -28.352501
26.855101 -27.985399 -29.353300
25.867701 -28.539200 -29.947201
16.783701 -24.408001 -20.219299
15.933100 -24.121500 -19.335501
14.679700 -24.755100 -17.681400
28.764900 4.677980 -6.431660
28.467100 4.450230 -7.601970
28.148100 4.199640 -8.766900
27.813801 3.914960 -9.923200
27.468901 3.587580 -11.067900
27.117300 3.213490 -12.199100
30.470699 5.141660 -3.730580
30.208000 4.948600 -4.939770
26.761900 2.792490 -13.315700
26.405500 2.325170 -14.417000
26.051901 1.810050 -15.501400
25.705799 1.243130 -16.565701
25.372101 0.619632 -17.606001
25.055700 -0.064447 -18.618700
24.760700 -0.811196 -19.599800
24.489300 -1.618860 -20.546301
24.241400 -2.481730 -21.455999
24.016300 -3.392420 -22.327299
23.813801 -4.344100 -23.158300
23.635000 -5.331370 -23.948099
22.472700 -7.119000 -24.572500
50.700001 -5.233790 27.689400
61.807201 -8.425230 23.709999
62.752602 -9.214630 23.900101
60.823002 -7.684750 23.514601
59.790298 -7.010580 23.316999
63.680199 -10.027100 24.079000
58.716000 -6.401840 23.119200
57.625500 -5.830770 22.922400
56.557999 -5.239830 22.724001
64.611801 -10.841000 24.237499
65.555801 -11.651600 24.365700
67.597900 -17.013599 32.674599
67.781097 -16.133900 31.806601
67.876602 -15.324000 30.878000
67.332100 -17.941500 33.478600
67.884499 -14.609500 29.898300
67.810402 -14.013200 28.868401
67.645103 -13.520300 27.785299
66.990303 -18.900400 34.219101
66.577698 -19.877899 34.897202
66.095901 -20.864401 35.511501
67.367302 -13.095100 26.670000
66.978699 -12.741500 25.555401
65.546402 -21.852501 36.059299
47.628799 1.868400 29.021200
48.077499 1.452620 28.027201
47.043800 2.003760 30.005400
48.384399 0.806267 27.100000
46.334599 1.826350 30.898500
48.538799 -0.024618 26.305401
48.521198 -0.995592 25.701900
48.314800 -2.047120 25.333099
65.185898 -24.024700 36.129200
53.404301 -1.762430 18.533600
53.836601 -0.817868 18.075701
54.216499 0.148098 17.667400
53.086498 -2.616140 19.106100
54.382500 1.103920 17.252501
52.998600 -3.247510 19.800900
51.113098 9.176290 13.767900
48.767700 9.477120 8.877830
50.056801 9.709770 11.964500
45.325699 7.757410 6.459160
43.012600 6.251280 4.782530
39.447399 5.093500 2.453770
44.124699 6.611650 5.144160
39.390202 4.741550 1.107400
64.306396 -38.173801 30.434299
65.546501 -35.269299 31.315599
53.837502 -19.194500 6.933590
53.843498 -19.092899 5.671390
53.935600 -19.389700 8.210110
54.082100 -19.734800 9.585010
53.592701 -20.542700 10.537700
53.993801 -19.065599 4.465450
54.348301 -19.065901 3.406460
54.962399 -19.028400 2.604300
55.862900 -18.876499 2.152360
51.917099 -22.653000 14.065500
51.174099 -23.155100 14.952100
52.651001 -22.073700 13.227500
53.360298 -21.412201 12.438200
56.962799 -19.841900 4.129170
50.430901 -23.586300 15.880900
57.415798 -19.636101 5.172270
49.693199 -23.949200 16.845100
58.957901 -18.266399 7.694370
59.492802 -18.181801 8.840500
58.476898 -18.400200 6.539070
47.735199 -24.350201 17.682899
60.053398 -18.123899 9.978410
60.613201 -18.075600 11.112900
61.158401 -18.025700 12.246100
61.690498 -17.970800 13.373100
62.228699 -17.912800 14.477200
62.810398 -17.856701 15.528500
63.482399 -17.804800 16.486000
64.277199 -17.751600 17.314800
68.931702 -25.886101 19.049400
66.469200 -19.652599 18.302500
67.140404 -20.663799 18.405600
67.795799 -21.694201 18.540001
68.413902 -22.739100 18.736900
65.807999 -18.662201 18.188400
65.177399 -35.600899 20.993200
64.613403 -36.489201 21.493700
64.015404 -37.258400 21.978800
65.706902 -34.625099 20.512300
66.197403 -33.571701 20.073500
64.248901 -37.793900 22.847700
66.646202 -32.438000 19.686100
64.392403 -38.270401 23.866199
64.460701 -38.650398 24.980000
66.973999 -31.266800 19.317499
67.124702 -30.150299 18.975800
63.512299 -39.614201 26.640200
63.415798 -39.739498 27.841499
63.230598 -39.734100 29.037100
47.007000 -24.505699 18.723000
40.445000 -25.416500 18.559200
41.133801 -25.169701 19.546400
42.443802 -24.950800 19.511700
43.751301 -24.769600 19.570999
45.026901 -24.649599 19.661301
13.105400 -24.200399 -15.787200
13.303500 -17.491199 -15.910100
13.239100 -22.064800 -16.282900
16.318701 -3.994250 -8.775220
47.284000 -17.955400 32.781799
47.765800 -16.841900 32.834000
46.958099 -19.095900 32.587101
48.401001 -15.801400 32.747501
49.287800 -14.054000 31.487200
43.082401 -8.334520 18.389099
44.298801 -8.458290 18.644699
41.893700 -8.097910 18.178301
40.771198 -7.701020 18.018499
39.782700 -7.102540 17.901699
45.525501 -8.508790 18.931601
39.016899 -6.296670 17.799200
38.541000 -5.349770 17.654900
48.397202 -9.898900 23.920900
48.907902 -10.378800 25.155600
47.956402 -9.492370 22.734800
47.553699 -9.137480 21.566500
49.090500 -10.987700 26.367500
47.157299 -8.817370 20.401100
49.364899 -11.562600 27.463900
49.644501 -12.125100 28.545000
49.909500 -12.662100 29.644899
25.636700 2.827000 1.455910
37.909100 5.161270 19.778900
44.394901 -1.950770 21.659700
45.152302 -1.729120 22.550400
45.903000 -1.537920 23.421400
43.543701 -2.185230 20.782499
42.484600 -2.378410 19.859800
46.710098 -1.361570 24.237801
41.281799 -2.788220 19.375401
40.264900 -3.105520 18.882401
46.766300 -20.214199 32.247398
44.076900 -24.010000 25.019899
43.498199 -24.236099 23.932199
42.922798 -24.468201 22.838200
44.655399 -23.800100 26.103500
45.231201 -23.618000 27.189800
45.806000 -23.471300 28.282801
46.071301 -22.478500 30.124001
46.696899 -21.289600 31.764700
41.758900 -24.932899 20.642401
42.347198 -24.700899 21.740999
21.953699 1.888790 -0.500694
23.176399 2.088580 -0.567667
25.019699 2.542360 0.414011
13.881800 -24.478201 -16.744499
21.411900 -13.482300 -27.485399
26.584999 -28.284700 -29.944401
15.107800 -23.838499 -18.425501
22.367800 -8.181190 -25.266199
29.935900 4.757590 -6.135010
23.482401 -6.350060 -24.696699
66.499199 -12.476600 24.459400
54.035599 -3.956260 20.924400
55.095200 -4.473350 21.251699
65.833199 -23.051399 35.680801
65.399200 -25.208099 35.680801
65.576302 -26.383801 35.199200
51.874001 8.584890 14.269500
52.394100 7.776510 14.748000
52.709301 6.802120 15.243500
52.932301 5.688520 15.747200
53.230801 4.468350 16.163799
54.223000 2.052470 16.830900
53.682301 3.086440 16.394600
53.146198 -3.487230 20.604700
46.443901 8.222180 6.828610
47.556301 8.691050 7.224560
48.655300 9.105300 7.671320
49.944801 9.760730 10.690600
49.828499 9.656120 9.421030
50.998100 9.448620 12.534200
40.596298 5.164180 3.001600
41.740501 5.310220 3.457850
42.882801 5.531580 3.864210
45.242100 7.047810 5.482520
31.669300 5.148980 -3.394570
32.871700 5.129890 -3.074080
34.064999 5.081690 -2.790430
35.504101 5.062750 -1.409010
36.613300 4.946520 -1.057430
37.774399 4.812710 -0.653378
38.981602 4.668860 -0.247618
63.864201 -39.016899 29.737301
65.389000 -36.363800 30.670700
65.130402 -37.368698 29.993601
65.837700 -28.709299 34.164101
65.721001 -27.551100 34.691200
65.929497 -29.856001 33.625900
65.999496 -30.980801 33.084000
66.053398 -32.048302 32.547901
66.095497 -32.930401 32.063900
66.376099 -34.381001 30.774700
66.577103 -33.279301 31.253599
54.021000 -20.668900 11.683100
56.593399 -19.068199 2.502550
57.164501 -19.021099 3.250320
48.964699 -24.241400 17.840200
58.050900 -18.596701 5.384240
65.187698 -17.686899 18.016399
67.974701 -29.420099 19.177000
68.823303 -27.699100 19.229601
68.806198 -28.656799 19.484400
69.310097 -26.878201 19.450300
68.972397 -23.793400 19.014601
69.449699 -24.850500 19.375200
64.451202 -38.915100 26.152901
46.287701 -24.595501 19.774200
13.407000 -18.698000 -16.298901
13.557500 -19.911501 -16.651899
13.755300 -21.128799 -16.969601
15.006800 -7.677060 -11.842800
14.745300 -8.698780 -12.535800
14.514100 -9.749300 -13.201800
15.296400 -6.687700 -11.122800
15.613700 -5.737780 -10.373200
14.316800 -10.827600 -13.838700
15.956300 -4.837170 -9.591590
14.157500 -11.932600 -14.442900
14.039200 -13.062000 -15.012200
13.964600 -14.212900 -15.544800
13.937200 -15.382700 -16.038799
17.743900 -2.628310 -8.114640
18.185101 -1.923570 -7.217640
17.329599 -3.382860 -8.987270
18.654900 -1.264210 -6.301090
19.151199 -0.645186 -5.368710
19.671600 -0.062354 -4.422610
20.214800 0.484401 -3.463070
20.778400 0.992574 -2.489530
21.359301 1.460450 -1.501860
13.958700 -16.568899 -16.493099
13.527000 -23.277500 -16.537300
49.166599 -14.877000 32.566898
50.171001 -13.167700 30.784700
46.756100 -8.513000 19.235399
39.362999 -3.444030 18.295300
38.606998 -3.713420 17.495899
38.326302 -4.522810 17.410601
35.391300 5.544610 14.761700
34.691601 5.467930 13.756600
34.001999 5.356860 12.740700
36.103401 5.578360 15.748300
36.834301 5.555430 16.715599
33.321701 5.213780 11.721800
37.588699 5.460980 17.672100
32.648701 5.038470 10.704500
31.981100 4.832440 9.689820
38.361500 5.285150 18.626301
38.688599 4.882180 20.741800
31.318600 4.601460 8.675830
39.455101 4.593240 21.718399
40.205898 4.333720 22.720100
30.662100 4.354400 7.659260
40.939400 4.127530 23.757000
41.653900 3.978300 24.830099
30.013201 4.099760 6.637410
42.350300 3.867000 25.922300
43.025902 3.749390 27.003901
43.666801 3.568100 28.043800
44.238499 3.280000 29.010401
45.847301 2.435150 29.996700
29.372900 3.844060 5.608710
28.740801 3.591840 4.572580
28.114799 3.344750 3.529660
27.492901 3.100310 2.481980
47.589500 -1.183470 24.992201
26.874001 2.852830 1.432530
46.384800 -23.358400 29.380699
46.767700 -22.315100 31.165100
24.407400 2.232550 -0.620090
21.507099 -14.642300 -27.996901
21.639900 -15.814200 -28.472700
21.809601 -16.996300 -28.910801
22.015600 -18.186600 -29.307699
22.257200 -19.384399 -29.658899
22.293900 -9.265380 -25.925699
22.253099 -10.368200 -26.553200
22.248301 -11.487400 -27.149700
22.281700 -12.621600 -27.714899
22.534100 -20.589600 -29.959101
22.845200 -21.802401 -30.202299
23.186800 -23.023300 -30.383600
23.550400 -24.249701 -30.496201
23.923300 -25.466700 -30.525801
24.292200 -26.638201 -30.448000
24.641701 -27.701500 -30.226601
25.630501 -27.886700 -30.510700
21.854099 -25.009800 -24.907200
20.904900 -24.699699 -24.179399
22.809700 -25.323999 -25.596201
19.970800 -24.393000 -23.411400
19.055799 -24.089500 -22.607100
18.159300 -23.789499 -21.774300
23.763800 -25.645500 -26.252800
24.710100 -25.980900 -26.892000
17.281099 -23.493299 -20.917999
26.488300 -26.681000 -28.255100
25.632401 -26.331600 -27.543800
27.213200 -26.976801 -29.079599
27.267599 -27.672100 -30.376200
27.767300 -27.083401 -30.010500
26.546499 -27.899599 -30.587200
16.424200 -23.201200 -20.037800
15.592600 -22.913099 -19.132000
14.306600 -23.557600 -17.491501
29.645800 4.559350 -7.321900
29.335800 4.342540 -8.502430
29.008301 4.095800 -9.675560
28.667299 3.809930 -10.838800
28.316799 3.479140 -11.989700
27.959900 3.101500 -13.126400
31.397200 4.979360 -4.618310
31.122101 4.812750 -5.826830
27.599501 2.677250 -14.247800
27.238800 2.205700 -15.352600
26.882799 1.683160 -16.438000
26.536301 1.104410 -17.500601
26.204300 0.465152 -18.537201
25.891701 -0.237704 -19.544600
25.602900 -1.005380 -20.519501
25.339800 -1.834950 -21.458900
25.100700 -2.719390 -22.358900
24.883400 -3.649900 -23.216000
24.688200 -4.618120 -24.028400
24.517900 -5.617920 -24.796200
23.358101 -7.396450 -25.405399
62.389099 -8.913730 22.745701
61.471199 -8.106180 22.543699
63.270199 -9.760790 22.941299
60.497299 -7.364420 22.340200
59.464901 -6.701150 22.136299
64.144402 -10.616500 23.121500
58.386600 -6.110860 21.931801
57.286098 -5.566800 21.724001
56.187500 -5.028510 21.504801
65.037300 -11.459300 23.273300
65.953499 -12.289500 23.386600
68.274300 -17.266001 31.653999
68.413902 -16.407801 30.774799
68.049500 -18.179899 32.474998
68.464897 -15.632100 29.849100
67.747704 -19.129601 33.236401
68.434898 -14.978400 28.900801
68.365501 -14.504700 27.876699
68.192497 -14.089900 26.752199
67.374001 -20.100700 33.940102
66.930496 -21.082899 34.584499
66.416100 -22.068800 35.165699
67.859200 -13.669300 25.618500
67.414001 -13.346500 24.521799
46.979801 2.061250 28.033501
46.481899 2.390370 29.035801
47.346401 1.492170 27.070000
47.581001 0.732924 26.209299
47.669800 -0.173725 25.502899
66.075600 -24.245399 35.260700
54.157600 -1.855020 17.646999
54.456600 -0.906992 17.171600
53.853901 -2.734250 18.233400
54.589100 0.043540 16.741699
53.693699 -3.445160 18.980301
54.434399 0.945783 16.335899
53.757301 -3.871640 19.884600
51.729599 8.917130 13.076200
49.711899 9.384530 8.181950
50.885502 9.598660 11.272200
46.356201 7.545750 5.807170
44.020500 5.840180 4.237640
40.480301 4.743240 1.918540
45.152199 6.247160 4.574370
35.233398 5.008590 -2.527070
40.174999 4.520550 0.049910
40.535301 4.529390 0.976105
64.730698 -38.284801 29.287001
66.185898 -35.478100 30.167801
54.453400 -18.189699 6.368770
54.583801 -18.383200 7.675020
54.421700 -18.116699 5.065340
54.813801 -18.639000 8.960040
54.611198 -19.839199 10.927400
55.171001 -18.891100 10.230900
54.539501 -18.116301 3.851800
54.885799 -18.080099 2.798280
55.489799 -17.972000 1.987230
56.681900 -18.263700 1.900390
56.289501 -17.693001 1.499890
52.347000 -22.811701 15.240400
53.067501 -22.235701 14.399100
51.621101 -23.318399 16.124201
53.770500 -21.583500 13.602400
54.439701 -20.849001 12.848000
57.637001 -18.830299 4.261460
50.897499 -23.758699 17.047701
50.181599 -24.130600 18.008400
59.553501 -17.151100 8.041840
60.082500 -17.079599 9.204970
59.062199 -17.274700 6.860640
58.627800 -17.472300 5.665870
48.247299 -24.459299 18.861300
60.621700 -17.032301 10.356300
61.151699 -16.990999 11.502200
61.664001 -16.947399 12.644300
62.163399 -16.900299 13.776600
62.671501 -16.852100 14.883100
63.227001 -16.806499 15.936300
63.873798 -16.762800 16.901501
64.635902 -16.713499 17.755100
69.823196 -25.902100 19.803699
66.866203 -18.580999 18.725599
67.562599 -19.580700 18.807800
68.233002 -20.607700 18.933001
68.857803 -21.656700 19.130100
69.418297 -22.720501 19.415001
66.168503 -17.607500 18.641899
66.233398 -35.247398 21.359699
65.636398 -36.182499 21.862101
64.981697 -37.035599 22.365900
66.777901 -34.236301 20.885099
67.285500 -33.139599 20.461500
65.205299 -37.498199 23.380100
67.831398 -31.869400 20.102100
65.314903 -37.865799 24.492001
65.323898 -38.127701 25.664600
67.949799 -30.596100 19.570801
64.355202 -39.059101 27.357100
64.161201 -39.087399 28.564400
47.539799 -24.602200 19.901501
43.036098 -24.764500 20.664101
44.309799 -24.655500 20.729200
45.575500 -24.621401 20.827700
14.028700 -17.768400 -16.908800
14.002700 -22.345900 -17.250999
16.939699 -4.191380 -9.830430
48.150398 -17.685301 33.634800
47.788502 -18.824900 33.464401
